ply
format ascii 1.0
element vertex 1262
property float x
property float y
property float z
property uint8 red
property uint8 green
property uint8 blue
end_header
1.127545 0.890395 0.853340 103 74 42
1.021407 0.863775 0.892367 46 24 0
1.587008 0.372768 0.291496 86 60 45
1.583899 0.573423 0.444692 96 66 38
1.526498 0.575075 0.448391 71 40 9
1.341065 0.646612 0.636597 124 88 56
1.137595 0.648486 0.578768 75 43 18
2.124256 1.072659 0.430397 42 74 89
1.776711 1.050953 0.447758 36 63 74
1.378266 0.792133 0.833040 72 43 9
2.159358 1.139294 0.594171 33 33 22
1.864516 1.056300 0.498263 42 75 84
1.039978 0.807062 0.748942 66 36 2
1.444081 0.934644 0.904116 65 38 5
1.464669 0.946562 0.900603 56 30 0
1.464669 0.946562 0.900603 56 30 0
1.323408 0.935716 0.907509 108 79 45
1.111626 0.880949 0.839945 104 75 41
2.236175 1.233545 0.914565 143 116 99
1.853466 1.092736 0.955085 50 28 15
0.850362 1.041406 0.719908 72 40 1
1.832433 1.591924 0.753966 78 78 76
1.961402 1.709790 0.663690 83 77 77
1.564168 0.507834 0.405147 106 73 42
1.564037 0.506447 0.408776 106 73 42
1.557534 0.585161 0.456932 98 69 39
1.519022 0.592890 0.460456 81 50 19
1.444108 0.607184 0.502830 40 22 8
1.277208 0.588105 0.458831 120 88 66
0.963203 0.694792 0.410421 53 35 13
0.701815 0.856134 -0.102333 65 49 34
2.271217 0.950335 0.629143 39 17 6
2.201735 1.070704 0.290199 51 83 98
1.913084 1.024810 0.258039 67 98 114
2.236393 0.963168 0.629136 50 26 16
1.219042 0.722408 0.789174 51 38 29
1.269908 0.748677 0.803448 33 19 10
1.200318 0.734068 0.781210 66 52 41
0.929172 0.760939 0.569997 81 48 15
2.219000 1.100737 0.654755 83 58 36
1.576194 0.926172 0.839963 67 38 4
1.342951 0.815051 0.855148 107 78 44
1.312158 0.823774 0.849670 70 42 5
1.286581 0.824240 0.847639 102 74 37
1.263602 0.826564 0.845386 50 26 0
1.006786 0.811791 0.846848 32 16 2
2.122777 1.248025 0.634885 41 68 77
1.858891 1.060668 0.784954 49 47 26
1.492578 0.904974 0.869268 93 64 32
1.245933 0.888200 0.875776 71 43 6
1.244365 0.925711 0.893720 108 83 43
1.870620 1.081824 0.963325 52 30 17
1.699534 1.224258 0.642087 85 95 96
1.366537 0.976414 0.911770 68 41 11
1.368584 1.014397 0.936889 97 68 34
1.237598 0.973757 0.911275 64 38 4
1.229533 0.967434 0.909152 96 70 35
0.998481 1.092000 0.842127 104 75 41
0.960121 1.034644 0.811436 70 44 12
1.547737 0.459172 0.374477 113 79 42
1.497265 0.573160 0.443134 83 52 14
1.465261 0.609434 0.510985 40 23 10
1.124386 0.624085 0.522332 146 110 83
1.135633 0.639161 0.562628 57 25 0
1.429087 0.726487 0.777295 65 51 40
1.265253 0.685579 0.743168 69 52 42
1.187040 0.694784 0.755201 62 49 40
1.940301 1.026225 0.386335 121 92 32
1.995676 1.065491 0.511455 46 80 89
1.964810 1.059859 0.495018 94 85 51
1.958002 1.057215 0.490014 174 149 73
1.922165 1.036726 0.426598 96 56 45
1.378485 0.732049 0.800925 56 43 35
1.434756 0.794346 0.819643 106 80 47
1.231786 0.733529 0.787137 14 0 0
1.233704 0.767887 0.808906 117 85 47
1.066382 0.715863 0.681555 119 91 51
0.961090 0.739261 0.575856 76 43 10
0.953217 0.752545 0.591555 107 74 41
0.986677 0.784763 0.678458 82 49 14
0.987345 0.758024 0.656267 81 48 13
1.864084 1.070687 0.509596 31 60 76
1.573239 0.916694 0.841433 105 76 42
1.457792 0.862799 0.862779 69 40 8
1.438584 0.847703 0.856148 102 73 41
1.412671 0.823076 0.849050 56 29 0
1.343301 0.795584 0.833089 66 36 2
1.356737 0.805027 0.842251 55 26 0
1.325086 0.792640 0.827684 61 31 0
1.314440 0.789879 0.830898 107 77 41
1.284563 0.786656 0.826665 110 80 46
1.291091 0.796314 0.832006 107 77 43
1.218167 0.816684 0.834084 119 89 55
1.197519 0.840160 0.839504 70 40 4
1.126753 0.787931 0.790087 53 24 0
1.090449 0.797715 0.776631 67 38 6
1.055887 0.805709 0.761603 102 72 38
1.412714 0.909816 0.897345 62 36 3
1.410160 0.914784 0.899599 97 71 38
1.393406 0.933618 0.909355 114 85 51
1.373495 0.923620 0.903397 105 76 42
1.365960 0.912744 0.901065 93 67 32
1.357036 0.921529 0.903753 109 80 48
1.252369 0.893763 0.878138 102 72 36
1.204823 0.864337 0.855008 116 86 48
1.238514 0.929771 0.893580 65 39 4
1.237939 0.936429 0.892903 92 68 32
1.217130 0.920712 0.885450 70 42 3
1.217132 0.926466 0.891729 102 76 42
1.205925 0.910658 0.880234 109 79 45
1.173097 0.913122 0.876052 55 29 0
1.142102 0.855071 0.830554 109 79 45
1.151524 0.909136 0.869930 96 73 40
1.082248 0.875201 0.820904 41 17 0
0.870805 0.771432 0.901407 68 50 38
1.969938 1.067218 0.955692 56 32 20
1.888553 1.085663 0.971805 85 61 49
1.835003 1.079674 0.905946 42 19 5
1.784855 1.110649 0.793076 43 64 67
1.790408 1.129214 0.822643 34 37 29
1.470650 1.021603 0.906348 80 54 24
1.373287 0.971096 0.914098 99 72 42
1.351173 0.954650 0.911850 103 74 40
1.331718 0.949511 0.909880 74 45 11
1.321860 0.994022 0.924541 73 47 12
1.298355 0.964311 0.907446 58 31 0
1.270814 0.985737 0.916699 69 43 8
1.262606 1.025071 0.920476 100 74 41
1.163200 0.955604 0.894534 62 35 6
1.228533 1.023146 0.914177 62 36 3
1.228598 1.023482 0.914095 62 36 3
1.068370 0.961673 0.871087 49 25 2
1.118753 0.977509 0.886744 61 35 8
1.074339 0.920133 0.864388 82 60 36
1.321822 1.044006 0.927118 71 42 10
1.287695 1.041243 0.924854 102 76 43
1.190944 1.104719 0.910098 93 67 34
1.957418 1.714946 0.673924 48 42 42
1.935153 1.703621 0.668348 41 33 31
1.941713 1.711512 0.711747 44 39 36
1.947224 1.714994 0.762468 44 39 36
1.899282 1.691983 0.814741 47 43 40
1.893508 1.692138 0.709575 70 65 61
1.893508 1.692138 0.709575 70 65 61
1.931850 2.226454 1.046993 96 82 69
1.595757 0.528178 0.408180 74 43 14
1.484332 0.568597 0.447770 72 43 13
1.493668 0.576238 0.449775 76 48 11
1.190115 0.606732 0.477481 72 41 10
1.334164 0.674897 0.735433 66 52 41
1.369691 0.708290 0.778830 60 47 38
1.315146 0.696344 0.759757 56 44 32
1.286517 0.663647 0.715579 30 16 5
1.275699 0.661413 0.717468 29 15 4
1.266384 0.677959 0.734271 79 62 52
1.219009 0.701088 0.762916 64 51 42
1.986571 1.068849 0.504074 46 79 94
1.515597 0.805214 0.789518 80 50 14
1.516685 0.806188 0.787089 80 50 14
1.500672 0.813816 0.805285 113 83 47
1.336329 0.716191 0.785911 58 46 34
1.305991 0.729353 0.795100 28 14 5
1.325897 0.737849 0.803775 60 47 38
1.330663 0.781245 0.825262 106 76 38
1.264079 0.732458 0.794923 27 13 4
1.252189 0.767959 0.812969 113 84 44
1.174114 0.753095 0.785640 108 77 46
1.109245 0.706996 0.728189 48 35 27
2.139807 1.107038 0.547512 101 137 151
2.139807 1.107038 0.547512 101 137 151
2.132883 1.139958 0.559897 84 120 131
1.870734 1.065759 0.511768 90 125 145
1.557752 0.925904 0.848786 70 41 9
1.457231 0.843750 0.845387 103 74 42
1.443852 0.853852 0.858896 66 37 5
1.443517 0.857061 0.863592 106 77 45
1.478016 0.895078 0.870540 68 39 7
1.434344 0.868317 0.870193 101 72 40
1.351717 0.850411 0.866677 107 79 40
1.351717 0.850411 0.866677 107 79 40
1.388649 0.857672 0.874212 64 35 1
1.365686 0.856381 0.871177 73 43 8
1.359221 0.800960 0.837870 94 65 31
1.334646 0.793077 0.833092 76 46 12
1.302862 0.802913 0.835926 65 35 1
1.284905 0.790837 0.830529 67 37 3
1.273317 0.815147 0.842939 57 29 0
1.299453 0.829004 0.851087 108 80 43
1.274582 0.849558 0.859438 103 75 38
1.272699 0.790802 0.825872 53 24 0
1.272699 0.790802 0.825872 53 24 0
1.253975 0.783437 0.821915 103 75 41
1.216146 0.787807 0.817730 62 33 0
1.207860 0.788850 0.814249 56 27 0
1.212069 0.801101 0.822528 110 81 47
1.184881 0.850531 0.838271 75 45 7
1.125218 0.793534 0.791954 104 75 41
1.153747 0.845112 0.831085 114 84 48
1.069458 0.810778 0.772195 99 66 31
1.069888 0.830021 0.788060 99 69 35
2.124288 1.195109 0.599105 68 98 109
2.121821 1.247789 0.623278 71 101 112
2.122112 1.247981 0.622414 71 101 112
1.864957 1.054773 0.799502 103 79 54
1.603826 0.978972 0.833434 104 74 40
1.516042 0.944898 0.881500 106 77 45
1.393012 0.914750 0.892709 94 67 34
1.378284 0.872281 0.885177 102 73 39
1.402368 0.954550 0.912959 99 70 38
1.392584 0.940095 0.909335 71 42 10
1.327487 0.877514 0.878158 117 88 54
1.303355 0.870452 0.873632 110 82 45
1.269994 0.905834 0.887127 112 84 45
1.200400 0.891037 0.864006 112 84 47
1.178078 0.887778 0.862282 112 82 46
1.201614 0.914932 0.881761 76 48 9
1.184518 0.913698 0.879543 73 45 8
1.150732 0.881778 0.847090 117 87 49
1.149092 0.887590 0.847332 72 42 4
1.100174 0.869748 0.828207 106 80 47
1.151523 0.889155 0.858384 118 90 51
1.121455 0.920669 0.876281 83 59 35
1.110289 0.903899 0.853331 80 58 35
1.098808 0.889533 0.840623 78 57 31
2.240391 0.996832 1.251238 149 120 109
1.706270 1.182963 0.628036 25 42 49
1.370623 0.963698 0.912854 70 44 9
1.362207 0.994782 0.925285 117 87 51
1.285904 0.965734 0.905201 104 76 37
1.297262 0.978352 0.917884 70 40 2
1.269208 0.944990 0.901984 98 74 40
1.233786 0.942429 0.899388 105 76 42
1.232747 0.939614 0.892603 64 35 3
1.690786 1.290036 0.626450 42 56 56
1.311225 1.102959 0.928851 95 66 34
1.287082 1.048524 0.924974 64 38 5
1.255920 1.041047 0.920448 64 38 5
1.198482 1.068467 0.911406 93 66 36
1.306367 1.159958 0.921742 97 68 36
1.934365 1.711759 0.792411 47 43 40
1.981168 1.756109 0.808129 67 66 64
1.565561 0.586097 0.450410 100 70 42
1.525375 0.549696 0.430996 106 73 40
1.538073 0.599931 0.460001 103 74 40
1.312239 0.669846 0.731493 58 46 34
1.994382 1.040749 0.428177 106 74 27
1.488325 0.822756 0.824229 101 75 42
1.453538 0.807708 0.826052 67 38 6
1.408086 0.795554 0.824263 97 68 36
1.284017 0.782059 0.823585 62 33 1
1.283954 0.782037 0.823555 62 33 1
1.280807 0.725005 0.785237 22 8 0
1.252908 0.772319 0.813465 66 36 0
1.463706 0.859161 0.854428 78 49 17
1.410373 0.867833 0.874181 102 73 41
1.394024 0.837987 0.863284 93 67 34
1.371193 0.837351 0.856564 106 77 45
1.309790 0.812219 0.844690 78 50 13
1.215659 0.783875 0.815376 100 71 37
1.242257 0.835800 0.843290 73 43 7
1.246187 0.843911 0.854228 105 77 39
1.134082 0.830277 0.817103 100 71 37
1.844031 1.061631 0.764668 48 78 88
1.373387 0.914188 0.902102 103 74 40
1.211818 0.894853 0.867746 72 44 7
1.184598 0.910480 0.875131 106 78 41
1.104983 0.869511 0.831618 66 40 5
1.366287 0.994594 0.918772 83 53 15
1.333472 0.988306 0.923235 103 77 39
1.308190 0.982740 0.915668 84 56 17
1.285680 0.976943 0.915566 115 87 50
2.267166 1.208601 0.782219 176 169 163
2.119089 2.248730 -6.129445 178 174 175
-2.811179 6.603484 -6.803264 137 117 128
-3.874309 8.863474 -3.830473 171 170 175
2.170341 1.113164 1.279898 142 123 119
1.490344 0.573120 0.444878 93 64 36
1.120390 0.910553 0.861050 59 37 17
0.845386 0.766602 0.773585 22 13 8
0.964687 0.698669 0.438556 49 34 22
1.904530 1.073740 0.527185 66 107 135
-2.231059 6.430197 -6.274833 176 176 178
-0.139136 7.395024 -3.449271 164 161 168
2.580661 0.281911 -0.730488 199 198 203
-2.304024 6.393550 -8.469378 91 85 95
0.653226 7.481059 -3.936392 92 80 90
1.603505 3.230139 0.303685 179 171 168
1.195225 5.543423 -1.301319 152 132 133
2.484506 0.179197 -2.153403 174 148 161
1.837046 2.648263 -12.165636 46 51 72
-0.842715 6.493783 -16.629086 95 90 96
2.247458 0.971648 2.038474 178 170 168
-0.051964 7.191273 -4.154487 54 41 48
-0.060274 7.257964 -4.215986 54 41 48
0.183550 7.916845 -3.625211 90 71 75
-0.694493 7.841145 -3.453866 98 80 92
-1.499065 6.045173 -6.695685 168 167 172
-3.304914 7.071888 -9.019509 153 148 155
-2.257698 6.303171 -6.861005 0 0 0
0.419178 7.255653 -4.449368 74 58 69
-0.372710 6.659056 -4.006533 118 101 111
-2.958735 9.096385 -6.652748 65 53 65
1.275892 5.246029 -1.465013 174 166 164
-3.278998 8.470224 -4.707812 167 166 171
-2.506929 7.422596 -3.619527 118 105 115
2.563874 0.093888 -1.113618 194 192 197
2.252083 1.488794 -6.800180 119 100 102
2.252083 1.488794 -6.800180 119 100 102
1.202191 5.935338 -16.388636 83 73 82
1.276330 0.619071 0.579467 44 30 29
-0.354291 4.984732 -4.742336 164 163 169
-0.124106 6.393511 -4.060536 117 110 117
-4.904368 9.433997 -8.666270 151 146 153
-2.556162 8.636992 -5.835547 158 155 162
-3.027019 8.580044 -5.212046 168 167 175
2.369913 1.227051 -4.937135 187 178 181
2.093286 2.396143 -9.440270 166 156 164
2.224265 2.039990 -7.301196 176 170 172
2.414260 0.683791 -1.461050 163 139 152
2.353563 0.864416 -0.984809 192 189 198
-2.871706 7.106182 -9.986428 95 85 96
-0.958574 5.683696 -4.335042 167 151 162
1.473495 4.559458 -1.749365 188 184 185
1.071864 6.440340 -3.114985 135 121 120
0.916817 6.900914 -3.770876 147 137 136
-2.798080 8.795050 -6.682467 164 163 169
-0.339769 7.471998 -3.644695 130 111 117
1.867532 2.589006 1.025399 157 133 131
0.755172 7.751564 -2.942832 158 148 149
1.888240 2.461662 1.441634 187 179 176
1.452701 4.004563 0.317280 182 173 174
1.079027 5.720595 -0.846888 169 161 159
-0.227952 8.121887 -2.974253 92 75 81
2.459008 0.734690 -4.867185 173 165 163
2.664016 0.084842 -0.651491 197 195 198
2.414882 0.984921 -5.860799 133 117 117
2.397263 1.239032 -6.331294 152 136 139
2.096604 2.439471 -12.267272 152 141 145
2.620422 -0.075819 1.153085 188 183 180
2.289847 1.498499 -5.505035 172 163 166
1.927670 2.844976 -11.455792 145 134 139
2.112885 2.193986 -7.677146 142 126 127
2.273589 0.918990 -0.824432 172 146 155
2.249289 1.004818 2.104535 183 178 175
-0.709918 6.269488 -4.085076 144 142 147
2.162266 1.351174 1.856559 185 177 174
-0.395004 7.198182 -4.144246 105 92 99
1.214786 5.396120 -1.010415 149 129 128
-3.768108 9.055088 -5.030710 115 110 117
-2.609142 7.234186 -2.945308 158 143 152
-1.470416 7.647168 -2.406506 140 137 148
2.430692 0.992641 -5.065254 156 141 141
2.304274 1.019104 -5.879008 177 168 171
2.622913 -0.129354 1.105321 184 176 174
2.452013 0.843989 -4.268628 164 148 149
2.452013 0.843989 -4.268628 164 148 149
2.602912 -0.046019 1.142317 164 134 136
2.305553 1.014081 -0.059095 112 94 90
2.187018 1.055704 0.206167 66 101 131
2.084942 1.037544 0.441037 39 70 91
1.401287 4.776842 -1.967089 157 137 138
-0.151201 6.605941 -4.051822 117 112 118
1.505446 4.472243 -1.250223 155 137 135
1.396785 4.515213 -0.262611 153 135 135
2.617177 -0.024418 0.693966 191 185 185
2.617177 -0.024418 0.693966 191 185 185
2.299756 0.568978 0.882983 191 186 183
1.314763 0.636986 0.579111 132 101 81
2.307333 0.873225 0.685644 149 128 119
1.182905 0.728972 0.774179 28 17 15
1.737152 2.734969 -0.537572 176 167 162
1.438215 4.799629 -2.254481 151 136 133
1.505087 4.356833 -0.626868 168 156 156
1.567959 0.691311 0.511640 92 65 38
1.322684 0.649675 0.635555 43 28 23
2.228182 1.277347 0.718348 112 97 94
1.895672 1.735338 0.424187 111 102 104
2.080052 1.598819 0.779635 88 77 81
2.021846 1.822409 1.156582 167 159 153
1.878173 2.395126 1.571361 162 138 138
1.809355 2.552130 1.541520 158 130 126
2.434526 0.496173 1.277699 175 164 162
1.396958 0.761181 0.803485 19 8 7
2.296538 0.934578 1.211967 158 129 125
1.388103 1.003520 0.925992 101 71 45
2.148927 1.116147 1.744947 172 167 164
1.531215 0.399775 0.291216 102 70 47
1.564060 0.652705 0.482156 76 53 35
1.785940 1.093796 0.229313 26 43 50
2.051537 1.101802 0.535644 24 52 74
1.160559 0.764335 0.795336 58 30 8
1.395602 0.825048 0.854691 44 18 1
1.305249 0.865868 0.873581 86 58 34
0.733361 0.776599 0.760243 38 20 16
2.128808 1.299728 0.660044 57 77 88
1.625508 1.005039 0.829949 105 77 53
1.085213 0.903702 0.847109 29 11 0
1.408928 1.002014 0.920466 37 13 0
1.312443 0.968380 0.913333 60 34 13
2.181803 1.079658 1.295245 181 175 169
1.978043 1.685454 0.605105 51 42 43
2.005868 1.724516 0.631562 32 19 13
1.927022 1.764612 0.988590 125 120 117
1.681853 0.432287 0.299148 74 54 53
1.607349 0.412568 0.313993 39 20 13
1.547892 0.415859 0.312681 83 53 26
1.573249 0.442772 0.357019 69 39 15
1.476626 0.469291 0.337733 80 48 23
1.445465 0.544123 0.404103 103 77 54
1.361475 0.589130 0.470379 111 83 72
1.324900 0.568581 0.451965 49 39 38
2.034038 1.015860 0.363506 88 132 170
2.299476 0.910418 0.764852 141 123 117
1.866366 1.047383 0.420683 61 105 137
1.408426 0.709166 0.764902 14 4 3
1.029605 0.701379 0.608256 119 89 60
1.959850 1.098591 0.601288 73 103 131
1.431909 0.763554 0.793956 31 18 13
1.211856 0.747063 0.787809 36 18 4
1.095659 0.722512 0.722451 122 90 67
1.858382 1.108231 0.614762 59 91 119
1.782123 1.131212 0.609311 63 89 114
1.415459 0.869396 0.877746 95 69 44
1.307641 0.803570 0.837741 66 38 14
1.308293 0.803384 0.839418 66 38 14
1.305731 0.876775 0.879436 70 44 19
1.596491 1.004563 0.843817 91 64 37
1.301514 0.887991 0.887728 94 68 43
1.285796 0.897797 0.886439 112 84 60
1.198037 0.934190 0.891519 105 78 51
1.167172 0.928519 0.888911 109 83 58
0.861886 0.775210 0.895505 30 12 10
1.800083 1.178150 0.840225 44 38 39
1.018278 1.020393 0.848331 56 33 15
1.972144 1.710574 0.643623 38 33 37
1.601934 0.385568 0.296533 63 43 42
1.550340 0.583891 0.450973 70 43 22
1.459181 0.584712 0.474884 27 15 11
1.238596 0.600010 0.458685 64 34 23
2.206267 1.007858 0.551276 77 66 64
2.036222 1.048224 0.479732 34 71 97
1.823038 1.038055 0.427959 66 100 128
1.879341 1.064879 0.499384 41 78 104
1.847767 1.070367 0.509799 19 47 64
1.831511 1.068952 0.538201 23 50 68
1.530072 0.838306 0.810569 68 40 16
1.441033 0.791854 0.813483 59 32 11
1.441849 0.792204 0.812813 59 32 11
1.438231 0.805561 0.822517 58 33 11
1.432122 0.812760 0.834824 53 28 8
1.302684 0.755154 0.805709 24 11 5
1.234354 0.725164 0.788537 51 40 36
1.200132 0.733695 0.781934 61 48 42
1.117186 0.721608 0.730613 40 23 16
1.121022 0.736448 0.756197 110 80 54
1.742608 1.124305 0.614159 75 100 122
1.740241 1.142098 0.616904 11 32 49
1.340705 0.833821 0.859482 69 43 16
1.290255 0.802350 0.835550 61 33 9
1.227783 0.839805 0.846225 106 79 52
1.229648 0.867908 0.864083 65 38 11
1.163066 0.816180 0.817051 65 39 14
1.166823 0.822962 0.821738 102 75 48
1.140692 0.819211 0.815365 113 85 61
1.974102 1.072892 0.970709 50 29 24
1.267782 0.952573 0.902938 53 31 8
1.163685 0.896465 0.865574 78 48 22
1.207061 0.919948 0.887611 110 82 58
1.142035 0.875437 0.844453 62 35 8
1.107174 0.889585 0.843794 56 34 13
1.108771 0.907487 0.859948 32 13 0
1.086395 0.896564 0.841175 61 42 35
0.950704 0.778928 0.898796 25 12 6
1.352011 0.985995 0.917193 103 76 48
1.374540 1.010531 0.930986 68 42 17
1.323167 0.969443 0.911150 42 16 0
1.975517 1.723597 0.684917 47 42 46
1.614762 0.421367 0.314991 45 18 9
1.558755 0.444086 0.359939 77 47 23
1.537877 0.475568 0.376783 68 38 14
1.577618 0.501974 0.400818 103 76 56
1.505016 0.512679 0.394251 62 32 8
1.504342 0.539495 0.422219 105 75 51
1.507167 0.550249 0.425815 109 79 55
1.454281 0.542687 0.403879 73 42 14
1.470623 0.613656 0.516519 64 49 44
1.156501 0.609115 0.477072 45 24 18
1.118092 0.629186 0.512604 50 29 18
2.267431 0.950678 0.644814 75 55 50
1.791595 1.047552 0.440636 64 91 115
1.241127 0.699378 0.758870 17 6 2
2.007301 1.073689 0.521939 26 63 90
1.205419 0.771207 0.806776 67 39 15
1.148975 0.780859 0.793091 59 31 9
1.334238 0.848704 0.865135 101 74 47
1.298116 0.806203 0.839841 96 68 44
1.325754 0.859410 0.868142 70 42 18
1.239815 0.802081 0.829703 97 71 46
1.185597 0.795569 0.813906 66 38 14
1.192731 0.864215 0.851985 108 81 54
1.963450 1.065074 0.970198 80 59 54
1.950669 1.058886 0.966456 46 25 20
1.797372 1.079261 0.799918 48 73 95
1.415074 0.932909 0.910150 112 86 63
1.373736 0.922329 0.905753 102 76 53
1.351203 0.886143 0.888404 104 78 55
1.329386 0.912786 0.900613 105 77 53
1.332355 0.924553 0.904316 98 70 46
1.305475 0.959960 0.910127 93 69 45
1.252915 0.954127 0.902458 97 69 47
1.199926 0.898302 0.872086 105 78 51
1.177336 0.926127 0.884819 108 82 57
1.152320 0.919698 0.875124 66 46 25
1.234025 1.004289 0.913854 94 68 45
1.498145 0.552316 0.424704 74 44 20
1.535790 0.574776 0.435246 56 29 8
1.530592 0.568327 0.442762 88 63 41
1.345114 0.585024 0.452230 54 46 44
2.194545 1.078797 0.436126 45 84 113
1.982289 1.045341 0.461286 104 75 33
1.419381 0.738805 0.792701 50 40 39
1.265469 0.681157 0.739965 28 17 13
1.247108 0.662903 0.713030 64 51 45
1.507596 0.804804 0.790836 72 45 18
1.509029 0.829742 0.818063 106 78 54
1.485871 0.828073 0.823630 59 33 10
1.419662 0.800032 0.828832 99 72 51
1.387460 0.804437 0.843959 83 59 35
1.384648 0.809889 0.844638 61 36 14
1.325349 0.728551 0.796454 51 40 36
1.266312 0.794141 0.829114 109 81 57
1.252254 0.791227 0.826512 95 69 44
1.773381 1.094459 0.593555 78 108 132
1.382567 0.826799 0.851821 94 69 47
1.279140 0.857230 0.866220 96 68 44
1.269936 0.864589 0.869828 103 75 51
1.234525 0.793070 0.822900 91 65 40
1.077430 0.800369 0.774968 95 67 44
1.430014 0.937941 0.910294 62 36 13
1.388197 0.953951 0.913840 106 80 55
1.238924 0.907060 0.884605 77 50 23
1.276407 0.920172 0.894437 104 76 52
1.264522 0.923828 0.894919 72 45 18
1.204478 0.888349 0.862960 65 38 11
1.109358 0.874869 0.834760 64 36 12
1.190174 0.943794 0.895701 112 86 61
1.551813 0.472770 0.371391 110 80 56
1.512814 0.529637 0.416011 65 35 11
2.322402 0.575539 1.057272 204 193 194
1.154645 0.619371 0.507298 76 39 20
1.346322 0.772417 0.814114 66 40 15
1.786974 1.109596 0.776541 84 106 129
1.274275 0.908093 0.892187 110 82 58
1.584798 0.822855 0.681331 93 63 27
-2.257645 7.100868 -2.769895 0 0 0
0.032287 6.922312 -3.997055 0 0 0
-3.100407 7.066585 -9.763110 161 160 165
2.447643 0.461943 1.473502 182 177 174
-2.274803 7.412395 -11.519202 135 134 140
2.287384 0.693611 0.863137 148 121 114
-2.835932 6.643769 -6.861434 135 118 119
1.238992 0.591194 0.457741 135 99 65
1.892802 1.679892 0.674712 40 34 36
-3.433589 9.381463 -7.433223 39 34 34
1.283161 0.653082 0.633604 74 54 38
1.970517 1.089746 0.569611 44 79 101
1.921516 1.039499 0.407405 54 25 8
2.127630 1.423814 1.914205 149 121 120
-1.692574 7.012655 -2.693072 0 0 0
2.565241 -0.038279 1.572299 180 175 172
-1.285240 7.298732 -2.885244 0 0 0
2.632148 -0.221967 1.103030 160 128 129
2.498683 0.607976 -1.467137 196 194 199
2.496675 0.606058 -1.459568 196 194 199
2.424122 0.251956 2.205975 177 172 169
2.276451 0.602826 1.953997 176 171 168
2.276451 0.602826 1.953997 176 171 168
2.175839 1.385265 1.753556 150 122 119
-1.027875 7.997711 -2.660723 108 99 100
2.670703 -0.326550 0.295884 185 183 184
1.993399 1.767496 1.601300 177 167 165
1.536147 3.856365 0.367561 148 127 126
2.667863 -0.112321 -0.258816 153 124 128
2.274530 1.527849 -5.012305 136 118 118
2.327670 1.165978 -2.536004 129 109 110
2.353563 0.864416 -0.984809 184 181 188
2.446689 0.451641 0.067955 188 186 189
1.582281 0.730340 0.530798 89 59 23
1.689418 3.296723 0.025941 145 120 116
1.692779 3.319296 0.010232 145 120 116
1.592967 3.382332 -0.057167 169 161 158
0.517243 7.666253 -3.816860 114 107 114
-0.108513 7.487188 -3.755515 133 113 114
2.272436 0.900927 2.527513 179 174 171
2.569319 0.107846 0.749192 182 178 177
1.766808 1.107654 0.248495 106 102 103
1.286544 0.653217 0.718055 32 18 9
2.324229 0.522644 2.110515 170 165 162
-0.787905 6.134131 -4.112103 158 159 161
-2.136848 7.646665 -4.499827 152 149 154
2.118265 1.449164 1.651805 174 164 162
1.757835 2.867429 0.453152 138 115 109
1.757803 2.866092 0.454210 138 115 109
1.164843 5.684239 -1.643113 146 124 126
2.162266 1.351174 1.856559 178 173 170
1.752752 2.597720 1.137673 174 169 166
0.971650 6.153612 -1.113539 142 122 123
1.290835 0.612477 0.514154 38 25 17
1.290218 0.618065 0.506409 38 25 17
2.089480 1.471684 1.313171 175 167 164
2.259652 0.953637 2.073279 170 165 162
2.044538 1.784500 1.616325 152 126 125
1.854495 2.478653 1.450744 156 131 127
1.344356 4.580115 0.375557 174 166 164
2.330534 0.547425 0.938538 153 128 123
2.165006 1.107050 0.454151 22 58 72
1.057679 0.864513 0.818263 47 26 7
1.505561 4.362426 -0.631982 163 147 148
2.263848 1.031219 0.216815 45 74 82
1.316366 0.768742 0.814169 95 65 31
2.278446 0.584406 0.175894 162 142 143
2.282286 0.634464 0.170531 183 179 179
1.390560 0.557007 0.169660 122 93 54
2.340564 0.795589 1.455631 134 109 105
2.277338 0.897991 1.654184 148 124 122
1.893941 1.714393 1.010322 109 100 101
1.589692 0.384006 0.295521 47 25 12
2.280081 0.641209 0.136536 154 134 133
2.310767 0.557460 0.918549 187 181 177
2.037190 1.013384 0.295462 70 101 119
1.971148 1.043599 0.450815 145 114 70
2.284982 0.931620 0.754429 45 31 28
1.856508 1.080997 0.521602 56 82 95
1.848897 1.039876 0.442047 34 70 82
2.391269 0.649997 1.514731 184 176 173
1.130064 0.878978 0.847211 102 72 37
1.874386 1.629609 0.643788 78 82 85
2.152620 1.140714 1.424707 144 125 124
2.020730 1.788081 1.468990 172 159 156
1.605900 0.361040 0.293400 31 11 2
1.306106 0.608106 0.489891 38 22 9
1.761081 1.071388 0.406719 39 49 52
1.394414 0.804838 0.838528 62 33 3
1.258267 0.757711 0.797601 101 72 40
1.230869 0.747779 0.794886 31 12 0
1.112121 0.744070 0.755690 76 46 12
1.149367 0.788712 0.808171 73 44 12
1.433695 0.956915 0.909592 62 33 3
2.185357 1.082458 1.273047 147 123 119
1.972227 1.710906 0.642908 32 23 26
1.846679 1.600423 0.745916 68 68 68
1.535310 0.370744 0.247273 56 34 13
1.528271 0.375368 0.227529 145 129 116
1.528000 0.473347 0.365971 60 27 0
1.503095 0.575909 0.449082 105 74 43
1.380792 0.531824 0.386678 68 51 41
2.042454 1.028971 0.427564 37 73 85
2.011098 1.029765 0.404291 69 76 66
1.980831 1.022775 0.365127 63 79 66
1.922518 1.024506 0.385369 138 113 57
2.023221 1.062865 0.506725 42 80 92
1.972410 1.060414 0.491862 75 73 50
1.776553 1.070033 0.373794 42 55 61
1.298003 0.731432 0.798225 53 39 30
1.617922 0.911003 0.796190 93 66 36
1.231877 0.737469 0.793708 62 48 39
2.129100 1.265649 0.646368 28 47 54
1.729042 1.139466 0.623416 73 90 98
1.309141 0.857138 0.869837 64 35 1
1.245775 0.884905 0.880805 72 43 9
1.092235 0.816499 0.789437 71 42 8
1.120959 0.883625 0.843690 67 38 6
1.066203 0.858263 0.801083 97 69 38
0.662731 0.819177 0.698567 62 43 31
1.385195 0.921341 0.905672 61 32 0
1.236543 0.916531 0.890066 80 52 15
1.263697 0.981818 0.915227 84 55 23
1.193743 0.946285 0.898982 106 77 45
1.145880 0.901051 0.863513 72 42 8
1.600995 0.395832 0.297727 45 21 9
1.520512 0.484937 0.380493 104 74 40
1.544009 0.563397 0.442378 66 37 7
1.455215 0.537828 0.390078 105 77 40
1.921753 1.036439 0.428694 94 56 47
1.284099 0.733320 0.799642 59 45 36
1.792515 1.076951 0.582972 61 89 100
1.433158 0.805683 0.831586 94 65 35
1.381319 0.819486 0.850071 51 22 0
1.273592 0.771204 0.816205 65 36 2
1.267928 0.782098 0.821124 63 34 0
1.303190 0.861682 0.870451 98 69 35
1.144209 0.814211 0.812229 77 46 15
1.905180 1.694847 0.737463 43 39 40
1.838052 1.687138 0.771773 100 96 97
2.257261 0.966057 0.645035 81 60 55
1.994757 1.049289 0.472666 141 124 68
1.314776 0.708196 0.778840 48 35 26
1.788478 1.089721 0.587925 12 39 50
1.708255 1.351214 0.574003 30 48 46
1.238811 0.909406 0.889593 108 78 44
1.238725 0.910872 0.887762 108 78 44
1.886254 1.712381 1.036449 108 100 98
2.415712 0.504939 0.977952 152 122 112
-2.788637 6.818641 -6.732207 0 0 0
-1.106213 6.520750 -4.111107 142 141 140
2.165978 1.257656 2.206123 76 65 66
2.130350 1.061280 0.422205 65 90 99
1.448715 0.825110 0.839952 100 73 48
1.024383 0.767360 0.725605 96 63 28
2.230306 0.896850 1.952398 150 123 116
2.230306 0.896850 1.952398 150 123 116
1.992424 1.813899 1.685768 146 114 104
-0.025161 7.315462 -2.632341 0 0 0
2.194073 1.221805 2.160667 184 181 176
2.424410 0.555162 -1.549098 166 139 144
0.789117 7.547232 -13.248350 141 135 137
-3.085469 9.074791 -15.579205 126 125 130
1.964940 1.917275 1.031122 109 89 80
0.158840 8.149168 -11.935013 119 118 124
1.273646 0.627522 0.556807 45 32 20
-4.184344 9.434864 -6.644654 137 121 124
-3.883137 9.057191 -5.966668 0 0 0
1.620172 3.645863 0.215687 166 159 149
1.620657 3.631105 0.223113 166 159 149
-1.403284 7.660978 -1.829865 144 142 145
2.097146 1.332410 2.245311 161 131 129
-0.538534 8.621017 -1.279150 131 110 109
2.254430 1.734422 -3.197946 162 155 147
2.446077 0.791157 -0.915623 183 176 168
-0.244994 8.123164 -12.004334 112 96 106
-0.524124 7.974487 -11.867600 125 124 130
-0.835844 8.030944 -11.882549 109 92 98
-1.320040 7.790909 -11.383816 79 67 71
-1.841947 7.570750 -11.097598 99 84 87
-2.182988 7.234312 -10.745624 102 91 97
-2.701182 7.041635 -10.597598 111 100 108
0.813809 0.811155 0.663940 150 132 132
2.250968 1.292191 0.955980 173 168 162
-4.297864 9.291677 -5.995199 0 0 0
1.907427 1.820940 1.640659 175 171 162
1.717164 2.911731 1.078797 166 159 151
1.717164 2.911731 1.078797 166 159 151
-0.973102 8.807373 -2.558714 54 41 46
-0.973102 8.807373 -2.558714 54 41 46
2.195488 1.217742 2.239380 162 134 133
2.156001 1.218617 2.258982 182 177 174
2.578714 0.411511 -1.738052 164 139 135
2.189198 1.869740 -3.532549 138 118 109
2.341093 0.810820 -1.091329 164 136 135
0.512848 8.464972 -14.066242 126 120 122
0.779191 8.015071 -12.175701 146 142 143
0.050988 8.076158 -12.350812 108 96 100
-0.600814 7.792049 -12.079145 111 98 105
-1.191897 7.783176 -11.973488 110 99 103
-2.430098 7.305045 -11.112490 114 102 106
-2.124602 7.556271 -10.985520 114 113 119
-2.536172 6.476606 -7.102432 144 125 129
2.293246 0.890084 1.010735 156 128 117
2.173690 1.082803 1.550978 177 172 166
-0.809174 8.235346 -3.346370 0 0 0
1.815540 2.703542 0.774123 175 171 162
1.815540 2.703542 0.774123 175 171 162
2.040548 2.794766 -6.617586 143 130 122
2.173374 1.356303 -0.554523 140 113 102
0.777303 0.934164 0.064465 57 29 8
2.440364 0.426434 1.373477 171 164 158
2.365312 0.697561 1.520275 148 119 113
-2.503837 8.364712 -6.249099 135 138 143
1.906115 1.793551 1.048254 146 136 127
2.007119 1.789595 1.440161 170 163 153
-0.948621 8.854612 -2.335300 98 87 91
2.559186 0.232422 -1.008490 139 107 108
2.559186 0.232422 -1.008490 139 107 108
0.825405 0.877729 -0.003105 114 88 97
2.117896 1.164546 0.539854 23 46 54
2.302153 0.823021 1.284662 152 125 118
1.423890 4.506401 -0.935106 170 167 158
2.138745 1.454348 1.602353 155 126 118
1.289931 5.176361 -0.566254 144 129 120
1.816689 2.559194 1.082062 176 169 159
2.140513 1.279642 2.228229 159 130 126
1.668337 0.338754 0.251009 96 69 58
1.646206 0.417437 0.310484 49 27 16
2.198285 1.349618 -0.413248 106 79 68
1.444602 0.642589 0.566738 68 42 21
1.995151 1.027539 0.399420 141 116 59
2.315038 0.892718 0.768721 173 166 156
1.779766 1.123962 0.618192 48 71 77
1.828843 1.795443 0.667356 30 16 3
1.714667 1.878205 0.654302 44 28 15
2.030405 1.788394 1.454149 149 119 108
1.474532 0.576722 0.445607 46 28 9
1.213385 0.758383 0.790745 106 78 40
2.318388 0.834404 1.360879 176 169 163
2.282220 0.975837 1.226662 177 172 166
1.186590 0.929973 0.883734 79 50 18
2.054985 1.496210 1.454742 151 124 113
1.662323 0.431120 0.310166 75 53 40
1.263864 0.603954 0.451534 75 39 13
2.008361 1.015759 0.341733 73 111 130
1.910009 1.025674 0.303345 62 95 114
1.872545 1.038471 0.379490 81 122 140
2.266423 1.235237 0.371663 0 0 0
1.933087 1.057374 0.825156 56 33 17
2.484309 0.438767 -0.013373 188 186 187
2.015366 2.566083 4.992757 195 195 197
1.690998 1.299748 0.079064 16 22 20
2.349447 0.912027 1.992889 184 182 183
2.554600 0.113658 0.719223 185 184 182
2.178901 1.674033 3.819940 153 128 134
1.913753 1.137249 0.893053 53 34 30
2.178901 1.674033 3.819940 153 128 134
2.953528 -1.440055 0.618809 186 182 181
2.043052 2.187545 4.438435 191 191 193
2.732893 -0.658526 0.837684 151 125 128
2.043052 2.187545 4.438435 191 191 193
2.732893 -0.658526 0.837684 151 125 128
2.077092 2.289241 4.834960 151 123 135
2.490843 0.354072 1.266482 186 184 185
2.515585 0.660465 1.936905 154 127 132
2.257532 0.938960 1.516720 194 192 195
2.512840 0.659372 1.933764 154 127 132
0.097586 7.450735 5.420650 138 128 132
2.294948 1.130314 2.683392 145 118 123
-0.992065 7.140912 -3.683544 93 77 88
-1.052269 7.455976 -3.233010 96 78 92
2.095554 2.075383 4.883360 163 142 149
-1.246232 7.163317 -3.388436 130 129 137
2.027923 2.181320 4.899876 192 191 196
-1.474500 7.105989 -3.079378 114 96 110
2.025459 2.179693 4.895736 192 191 196
2.507441 0.544372 1.855185 177 178 178
2.282885 1.507784 4.809691 198 199 201
2.766538 -0.267519 -0.664097 179 175 172
1.852779 3.073737 -1.530762 180 176 175
-0.164742 8.060444 -2.815987 143 134 139
2.570052 0.210328 2.705580 159 132 141
-1.280348 7.327779 -2.908374 120 119 127
2.895470 -1.047557 -0.169228 158 131 135
-2.237303 7.036965 -2.746273 172 173 177
2.922286 -1.071935 1.066993 164 137 142
0.277592 8.797402 -2.794965 51 45 49
2.179319 1.403121 -1.899536 150 123 128
-1.511737 7.338173 -2.583421 108 90 102
-2.002512 7.203971 -2.507588 134 116 128
-1.545356 7.596366 -2.127521 116 98 110
2.082157 1.850871 -0.924677 140 115 118
-1.796716 7.668184 -1.840363 164 165 169
2.747488 -0.403367 -0.283277 155 126 128
2.747488 -0.403367 -0.283277 155 126 128
-2.994267 10.129606 -0.340259 174 174 174
2.768389 -0.570169 0.109726 187 183 182
1.213077 4.841858 2.197354 152 130 132
2.584150 0.127463 0.433808 184 183 179
1.073597 5.301358 2.524992 147 125 127
1.169187 0.673261 0.540410 93 61 40
1.070782 5.294089 2.519474 147 125 127
2.466400 0.300645 0.837241 157 128 132
2.469778 0.332213 0.849302 157 129 128
2.254407 0.962673 1.133385 170 145 148
1.007055 5.621774 3.503619 166 157 160
-0.046541 7.879921 2.830005 100 80 91
-0.046541 7.879921 2.830005 100 80 91
1.732574 3.011491 0.879479 155 130 134
2.253701 1.120313 1.362285 194 194 196
1.517770 3.808461 1.787327 178 174 175
0.032402 7.989251 3.272035 110 98 110
1.685053 2.725026 2.214212 193 191 193
1.604050 3.040645 3.006320 192 190 193
-0.659126 8.785848 5.432969 77 67 76
0.840738 5.414218 3.710823 163 140 148
-0.927254 8.133043 5.101183 161 160 165
1.199803 4.781386 3.320608 157 130 135
-0.714371 7.695345 5.789412 108 92 103
-0.649510 7.416824 5.633823 110 93 101
2.146696 1.265488 2.612540 204 202 205
-2.950646 8.371076 -4.605420 99 83 94
1.275568 4.222417 2.862013 187 181 185
0.289824 7.131721 -3.902854 137 135 140
0.840121 5.725097 4.850353 164 139 149
-0.278417 7.404892 -3.848106 141 139 144
-0.841046 7.514208 -3.559764 125 123 136
0.783061 6.383201 5.572347 156 130 133
-1.482496 7.039837 -3.519099 135 114 129
2.308568 0.761535 -1.087466 190 188 193
-1.482496 7.039837 -3.519099 135 114 129
2.255081 0.891109 -1.005404 178 176 179
-2.952516 7.997068 -3.949202 149 148 153
0.235881 7.668748 -3.457989 72 56 66
1.177268 5.130322 4.101857 185 183 184
1.395073 4.917961 -2.259966 144 126 126
1.177268 5.130322 4.101857 185 183 184
2.074469 2.019222 -1.322360 148 123 126
2.074469 2.019222 -1.322360 148 123 126
-0.451933 8.136305 -3.072129 148 146 151
2.321857 0.890654 -0.690932 181 158 166
-0.666404 8.409668 -2.885845 88 73 80
1.144094 5.365996 5.217185 190 188 191
-1.123440 7.597412 -2.753903 90 72 84
0.817057 6.530634 7.085783 157 136 143
0.113304 8.193934 -2.835693 147 142 146
2.092096 1.083154 0.144258 68 107 146
-1.317641 7.619710 -2.463282 118 115 124
-2.505416 7.283174 -2.549866 149 132 142
1.592039 3.675387 3.646823 187 187 189
0.656759 7.817686 -2.218037 148 138 136
-0.188108 8.405531 -2.451889 146 141 145
-2.261579 7.341135 -2.284542 168 169 173
1.286783 0.717607 0.003697 28 14 13
0.244220 8.678946 -2.216371 71 59 63
1.340146 0.682640 0.008180 86 53 34
-2.061376 7.529328 -2.047592 134 114 126
-2.295365 7.719358 -1.838073 177 178 182
-3.080340 8.692985 -2.201537 167 168 172
1.118538 5.432591 6.539010 171 145 156
-1.561144 7.937931 -1.658623 109 91 103
2.464564 0.253129 -0.717961 162 135 140
-2.041116 7.820092 -1.611403 142 125 135
-1.814051 7.996749 -1.410635 162 163 168
1.984546 1.497619 -0.274748 51 35 35
1.677299 3.557778 5.457739 193 191 194
-1.856339 8.373271 -0.986588 153 152 157
2.696241 -0.469406 -1.265285 170 145 151
2.805239 -0.621559 -0.012980 179 175 172
2.445087 0.339287 0.069059 155 130 134
2.805239 -0.621559 -0.012980 179 175 172
2.445532 0.339072 0.069657 155 130 134
2.776464 -0.523572 0.014506 152 124 123
2.520188 0.331361 0.423864 197 195 200
-1.832250 8.667794 -0.571311 159 158 163
2.333077 1.149006 2.254428 154 129 132
2.391405 0.531883 0.054543 161 134 139
2.302271 1.128115 2.213799 154 129 132
1.494279 0.752600 -0.011928 40 26 17
2.261078 1.374720 2.684205 179 175 174
1.443265 0.438437 0.158226 76 47 17
1.984361 2.803840 5.454556 188 189 191
2.671556 -0.195343 0.258233 152 124 121
2.410689 0.649007 1.621758 145 119 122
-2.460385 9.806564 0.654631 164 164 166
2.376055 0.887067 1.910870 146 120 123
2.510324 0.257452 0.409713 153 127 126
1.505673 0.646025 0.523503 40 27 19
2.642678 -0.130617 0.542591 152 123 127
-2.507922 9.995090 1.368372 160 161 163
2.199624 1.561226 4.131239 187 182 186
2.793802 -0.734203 0.466593 192 191 189
2.794331 -0.729592 0.466619 192 191 189
2.250711 1.211031 0.819448 0 0 0
2.487855 0.341765 2.245613 186 181 185
2.149725 1.318650 0.834854 82 71 75
2.502352 0.357735 2.264920 186 181 185
-2.429158 9.583926 2.004854 155 155 157
-2.561570 9.687111 3.061794 116 100 110
2.760560 -0.548584 1.861902 193 193 198
1.733162 2.684428 1.694132 190 188 189
2.761938 -0.548032 1.863008 193 193 198
1.733162 2.684428 1.694132 190 188 189
1.947007 1.671175 1.503003 191 189 190
1.692015 2.771492 -0.460776 148 126 128
-0.301085 8.091028 3.234708 171 171 176
-2.625087 9.615790 3.558654 101 86 93
1.367678 4.472540 1.343288 171 167 166
2.703153 -0.442458 1.023926 158 132 135
2.291272 0.972418 -1.842773 158 133 136
2.638489 -0.271000 1.108440 167 140 145
2.637046 -0.274285 1.107659 167 140 145
0.269287 7.699245 3.587121 191 192 196
1.379141 3.682256 2.429930 192 190 193
1.367392 3.818240 2.476075 192 190 193
2.242609 1.223172 -1.455980 147 121 122
-1.719760 9.599793 4.515436 137 136 141
1.335871 3.975996 1.502042 168 167 166
2.080591 1.415436 1.804773 196 194 197
1.311126 3.974079 2.794070 191 189 192
1.311126 3.974079 2.794070 191 189 192
1.648242 3.316935 1.047884 188 186 191
-0.069611 7.936020 4.074700 102 86 99
2.074448 1.450464 1.969938 165 138 143
0.899682 5.287917 3.488762 169 160 163
1.968226 1.849526 2.171321 193 191 194
1.552945 3.066644 2.602334 161 144 147
1.598277 2.936846 2.753152 191 189 192
-1.258618 8.276220 5.024477 141 121 130
2.097570 1.268208 2.178723 168 141 148
-1.366577 8.178615 5.306577 170 171 175
1.158872 4.312274 3.831053 197 195 200
0.599164 7.039564 6.999361 189 190 194
-1.082547 8.101745 5.458072 150 133 143
-1.082547 8.101745 5.458072 150 133 143
2.445939 0.149376 -1.580377 195 195 197
-1.115157 8.162226 5.807304 176 177 181
2.453461 0.445745 -1.237733 152 125 130
2.039639 1.587108 2.777884 167 140 145
2.551583 0.033692 -1.555135 155 126 132
1.520259 3.026422 3.464867 200 200 202
2.514353 0.116467 -1.508985 173 146 155
1.505993 4.747993 -3.249265 163 158 155
1.172420 6.015581 -3.810971 144 136 134
2.162058 1.679682 -1.864739 173 165 163
1.078876 5.692498 6.112122 163 142 147
2.162058 1.679682 -1.864739 173 165 163
1.366826 5.224645 -3.332434 129 118 116
1.148297 5.392156 6.147564 170 152 158
1.898203 2.815807 -2.261202 147 125 127
1.898203 2.815807 -2.261202 147 125 127
0.912362 6.966876 -3.126556 146 136 134
-2.140758 7.107477 -3.330940 179 180 184
-0.091091 7.795858 -3.108201 164 159 165
-0.281546 7.731151 -3.216176 129 108 117
2.614626 -0.114762 -1.446410 173 167 167
-2.438842 7.082776 -2.979139 112 96 107
2.478957 0.307191 -0.834139 143 118 121
0.056070 8.106430 -3.079392 83 69 74
0.771670 0.834234 0.615815 48 32 32
2.457377 0.425459 -0.778619 157 131 134
1.296664 4.850647 6.271814 172 152 161
-1.014781 8.003581 -2.673703 104 94 105
1.390782 0.540721 0.176175 93 68 38
1.025551 6.125876 -1.840201 131 116 113
1.540420 0.431156 0.126252 91 65 40
-1.196774 7.851429 -2.307577 92 75 85
1.779689 3.264299 -1.145330 178 174 173
2.299519 1.191420 2.163259 192 190 191
1.311199 5.253683 -1.383153 172 167 164
1.847771 2.567717 -0.697636 174 169 165
2.742213 -0.458363 -0.795829 156 131 127
0.548516 8.069135 -1.574707 156 151 148
2.359396 0.939461 2.115719 152 127 131
-2.259909 8.067348 -1.415413 174 175 177
-2.026276 8.113079 -1.187321 144 124 135
2.394407 0.829297 2.074871 177 175 176
-1.917802 9.218959 -0.209550 168 169 171
2.219774 2.110813 5.603261 169 152 162
-2.234345 9.595033 -0.096892 103 86 96
2.474454 0.511200 2.360377 167 148 154
-2.234345 9.595033 -0.096892 103 86 96
2.657941 -0.090659 1.113737 152 127 130
1.799460 1.121124 0.102115 53 87 114
2.502540 0.644393 2.742699 151 124 131
1.761745 1.063028 0.263629 106 106 108
2.459519 1.600114 5.530419 176 160 170
2.271737 1.079497 0.450564 12 6 6
2.772279 -0.592275 0.019232 130 101 103
1.588161 0.711659 0.580861 98 69 37
-2.439739 9.751494 1.682407 136 119 127
-2.447609 9.771322 1.684859 136 119 127
2.827520 -0.716190 0.027230 155 129 132
1.894981 1.075416 0.734104 59 96 125
2.720500 -0.359267 1.213822 167 141 149
0.897857 0.777800 0.660278 91 75 86
2.457900 1.015359 4.847948 168 148 157
0.895411 0.788833 0.661970 91 75 86
-2.179949 9.846490 1.967579 102 86 96
2.790323 -0.580283 0.790885 157 130 137
2.753026 -0.771850 0.571196 186 182 181
2.494771 0.332945 0.701836 148 118 116
2.804001 -0.874785 0.658898 154 129 135
2.733733 -0.822513 0.692107 180 176 173
2.896764 -1.083459 0.139702 158 131 138
2.390938 0.524125 0.964685 174 151 157
2.058622 1.879048 -1.368574 0 0 0
2.320469 0.574494 1.015082 197 195 198
-0.328896 7.991869 2.788236 169 169 171
2.118496 1.536663 -1.294143 183 181 184
1.994205 1.784057 1.676257 149 120 122
-2.218014 9.408822 3.975024 163 164 166
2.212993 1.026244 1.622320 192 190 193
1.474232 3.668572 2.598220 157 136 136
-1.222377 8.478559 4.505753 102 86 96
2.133088 1.519506 -1.136203 154 129 134
-1.904606 9.123957 4.478570 95 82 91
2.136425 1.521657 -1.136739 154 129 134
1.217456 4.340019 3.142951 166 143 149
1.057752 4.480937 3.276890 192 187 191
-0.116151 8.350457 4.625371 89 82 90
-0.984406 8.375465 4.590427 156 155 160
-2.171539 9.046542 5.308666 168 169 173
2.675135 -0.361482 1.501263 185 181 180
2.200030 1.128772 2.118778 190 186 187
1.995095 1.819322 2.465204 192 190 193
1.410410 3.916253 2.623664 153 148 144
1.122379 4.439688 3.669579 169 144 150
1.122379 4.439688 3.669579 169 144 150
-0.161896 8.733693 5.567972 98 85 95
-0.545187 9.082393 5.894939 151 151 151
-1.831024 8.512405 5.588259 171 172 174
1.190467 4.217180 3.984059 196 194 199
-1.294500 8.300820 6.141750 143 123 132
2.420869 0.531905 -1.194286 157 132 136
1.683359 2.710255 3.315682 161 136 142
1.682728 2.688705 3.302684 161 136 142
1.027852 4.345325 4.095984 163 140 146
1.547617 2.886125 3.571251 172 147 153
1.893714 1.074175 0.172763 3 26 42
-0.070060 6.111931 -3.851968 115 108 116
2.433769 0.606218 -0.592821 161 155 155
-0.068005 6.108984 -3.850669 115 108 116
2.099962 1.054185 0.181625 7 28 41
-2.650253 8.688162 -5.000844 74 58 69
0.049109 7.255921 -3.849644 107 86 93
1.193512 5.357644 6.396490 195 188 196
0.049109 7.255921 -3.849644 107 86 93
0.519991 7.617705 -3.771053 106 99 107
-1.296790 7.083320 -3.640181 131 113 125
2.386552 0.535551 -0.437456 146 140 140
1.467296 4.690013 -2.527362 163 157 157
2.462954 0.220406 -0.669789 161 134 143
-1.338254 7.058233 -3.336124 140 139 147
2.434918 0.458780 -0.236520 192 190 193
1.772021 3.200343 -1.809253 174 168 168
0.484815 7.964851 -3.382029 137 131 133
2.448432 0.461762 -0.148122 157 131 130
-1.808464 6.975841 -2.996994 130 113 123
-2.256953 7.046004 -2.890888 172 175 180
1.558870 0.371606 0.186200 53 38 35
-4.317170 9.977311 -4.003053 84 89 109
1.350878 5.150073 -2.239001 141 123 123
2.386513 0.840773 1.617548 155 130 134
0.998841 6.745081 -2.641050 132 118 117
2.576557 0.196681 0.857069 178 177 175
-0.955985 7.638272 -3.004294 108 103 110
2.639564 -0.083486 0.522237 175 171 170
0.991676 6.575827 -2.238174 159 154 151
2.416860 0.791268 2.448351 165 142 150
-0.044723 8.268404 -2.575558 144 135 138
2.125203 2.101780 5.230350 193 183 192
-0.484572 8.362260 -2.739384 155 150 156
2.442295 0.717478 2.893881 152 133 135
-2.838995 7.659087 -2.514652 173 178 181
0.116752 8.417055 -2.587081 65 53 56
2.667335 -0.235297 0.888171 177 172 176
0.154020 8.544769 -2.456869 103 91 93
2.564412 0.222122 2.211432 185 183 184
-0.968415 8.829430 -2.609081 48 36 50
2.677396 -0.316096 1.073581 159 133 142
1.229981 5.494936 -1.658268 170 162 159
2.679160 -0.122472 1.735273 179 177 180
-1.085183 8.209864 -2.210590 102 92 101
-1.298449 7.769967 -2.072320 116 113 122
2.596195 0.068909 3.284753 190 186 190
-1.443142 7.783435 -1.887574 145 146 150
-1.436166 7.765481 -1.884183 145 146 150
-2.443413 7.604778 -2.073236 151 134 144
-0.412754 8.582947 -1.782093 112 91 100
-0.412754 8.582947 -1.782093 112 91 100
2.285100 1.114227 -1.101809 163 159 160
2.712725 -0.307488 -0.252938 154 125 127
2.239636 1.055915 -1.002691 149 140 143
2.865009 -0.945304 -0.074084 183 178 174
-1.995337 8.532564 -0.767582 148 131 139
2.209522 1.300300 -0.595318 159 154 151
-3.302014 10.761602 -1.099370 83 90 100
2.396837 0.538634 -0.068984 162 136 139
2.245167 1.271456 -0.424790 152 145 142
-2.156567 8.723590 -0.646703 173 174 178
-2.367169 9.845604 0.143975 159 157 162
2.275128 1.167225 -0.396393 134 113 109
-2.580333 9.992055 -0.046036 167 167 169
2.246089 1.282002 -0.360652 116 94 94
-2.856353 10.081566 0.646568 94 78 88
2.620535 0.062273 0.288495 178 174 171
2.102017 1.322151 0.008675 30 53 67
0.980746 0.699512 0.398477 23 13 4
2.691016 -0.336983 0.410959 174 170 167
0.794105 6.346248 6.713865 182 176 180
2.587084 0.054057 0.523325 187 183 180
2.088901 1.153333 0.084880 33 58 75
1.686625 1.102325 0.582920 47 56 64
2.549853 0.067312 -1.288345 138 114 112
1.273188 0.618068 0.529772 47 33 22
0.805840 0.844431 0.645987 123 103 112
1.409709 0.727253 -0.031701 97 64 49
-2.171473 9.819588 1.575059 158 156 159
1.403555 0.713873 -0.003711 110 79 61
2.672944 -0.366716 0.566075 150 120 120
0.819215 0.816048 0.316027 124 91 58
-2.357684 9.699356 1.921027 154 154 154
2.199943 1.315697 0.942044 113 97 98
-2.113245 9.655362 2.243099 121 120 126
2.292047 1.022497 0.298277 102 86 86
-2.821104 9.849899 2.132905 96 83 93
1.325164 0.646974 0.023544 18 7 3
-2.816073 9.835448 2.130872 96 83 93
0.837800 0.868795 0.538441 127 98 68
2.624779 -0.094188 0.799236 194 192 193
-0.061415 7.666354 2.466847 170 170 172
-0.605849 8.613594 2.753234 142 125 131
-0.883671 9.084732 2.980371 171 170 175
2.537373 0.294939 0.414251 164 143 142
-1.472279 10.108265 2.959006 141 140 145
2.553754 0.292677 0.863138 154 128 131
0.925714 5.420897 2.226525 182 180 181
2.182432 1.958030 5.338800 159 142 150
-0.656312 8.551181 3.050851 125 105 114
2.683739 -0.454256 0.963156 185 181 180
2.751657 -0.465964 1.882237 184 175 178
0.810244 5.914745 2.693265 186 184 187
-2.240889 9.564065 3.565403 133 116 126
2.341397 0.467408 -1.423612 158 133 137
-1.934075 9.430688 4.163678 162 162 164
2.253061 1.322294 -0.451284 120 96 94
2.327357 0.873098 1.575807 186 184 185
0.917214 0.875083 -0.291057 44 30 21
0.633297 6.559619 3.306990 159 137 140
2.371161 0.770624 -0.754151 172 146 149
-1.083476 8.906349 4.284748 133 127 134
1.799373 1.238312 -0.050473 32 55 71
-1.291633 9.023111 4.220270 89 72 82
2.401185 0.676404 -0.821558 148 119 122
0.170632 7.789232 4.190282 188 186 191
-0.793177 8.677834 4.518604 52 42 49
1.356593 0.791293 -0.148045 64 53 49
-2.300634 9.541731 4.719262 162 163 167
1.335587 0.767716 -0.156608 50 34 19
1.848785 2.014583 2.242450 165 145 147
0.768755 0.937024 0.334215 64 35 17
0.618388 6.409425 3.964037 147 127 129
2.408434 0.544040 -0.531201 117 96 93
-1.972559 9.204626 4.968462 166 167 172
2.140888 1.097820 0.167406 58 94 126
-2.140209 9.041270 4.984094 140 124 134
1.431340 0.716136 -0.022263 18 7 1
1.733299 2.769407 2.613677 161 139 141
2.255131 1.023604 0.277618 97 135 176
1.248362 4.290185 3.320919 191 189 192
2.174595 1.081947 0.511300 104 158 199
1.092148 4.569706 3.484467 172 146 155
0.844282 0.867139 0.599435 121 104 121
-0.137281 8.666821 5.197898 67 54 62
2.400293 0.499557 -0.296616 161 136 142
2.452751 0.344820 1.783237 184 178 178
2.621932 -0.302579 -1.405875 148 126 128
1.825866 2.241864 2.696295 199 198 196
0.934497 4.801984 3.659481 194 189 195
2.392593 0.669998 0.345179 134 112 109
0.104814 8.066979 5.057392 189 184 190
2.602861 0.042402 0.050858 152 133 135
-2.011078 8.757061 5.450100 91 76 83
2.557159 0.236205 0.418034 173 169 168
0.371082 7.055030 4.922313 181 176 180
2.084865 1.649070 -1.595584 148 126 128
-0.649548 8.276441 5.720913 101 88 97
-0.865646 8.155072 5.677836 159 156 163
2.103750 1.552673 -1.303363 156 136 138
2.569763 -0.066180 1.760537 183 183 181
-1.694995 8.515655 6.243300 100 79 84
1.961362 1.375708 -0.211702 61 95 124
0.426870 6.706581 5.341587 131 109 112
0.934896 0.872565 -0.291068 27 8 2
-0.888155 8.128492 6.530275 160 158 163
0.850980 0.821730 -0.272558 22 8 4
-0.011741 5.887298 -3.914708 156 154 157
0.805281 0.834689 -0.228290 30 15 10
-0.036614 6.001132 -3.968496 156 154 157
2.227940 1.122521 -0.196521 88 67 64
2.153685 1.220703 0.046089 50 79 102
-1.130931 6.466823 -3.933914 181 180 185
2.141237 1.181785 0.070824 28 59 85
2.764242 -0.273006 -1.018552 177 173 168
1.300066 0.788457 -0.149725 47 30 20
2.505710 0.647969 -1.324634 149 118 116
